ply
format ascii 1.0
element vertex 1666
property double x
property double y
property double z
end_header
1.75883  0.328476  -0.394383
1.44207  0.356597  -0.966067
1.73656  0.351217  -0.421581
1.67929  0.370384  -0.53749
1.82035  0.457783  -0.314189
1.68338  -0.00385783  -0.505787
1.69992  -0.00489445  -0.516974
0.465108  0.0446228  -2.65015
0.496692  0.10201  -2.66657
1.75473  0.135955  -0.376925
1.42033  0.120576  -2.22864
1.42033  0.120576  -2.22864
0.411327  0.181583  -2.62424
1.1573  0.245358  -3.48159
1.82953  0.275132  -0.255049
1.60591  0.301013  -0.637648
1.8448  0.360531  -0.255225
1.84618  0.36093  -0.242138
1.52067  0.414438  -1.19084
1.58789  0.456023  -0.688062
0.514874  -0.0384987  -2.68286
0.521906  0.00202003  -2.68391
1.42086  0.0777976  -0.954616
0.766524  0.0255685  -2.92003
1.61246  0.108654  -0.663597
1.65725  0.110764  -0.575666
1.75404  0.142954  -0.377549
0.547709  0.122413  -2.70462
1.62378  0.295358  -0.616805
1.45365  0.289237  -0.452329
1.69807  0.298032  -0.51386
1.57033  0.326728  -0.708826
1.83298  0.324195  -0.267104
1.62136  0.404362  -0.634922
1.75593  0.39796  -0.393983
1.7195  0.466767  -0.463125
1.61776  -0.0134271  -0.648437
1.61776  -0.0134271  -0.648437
1.62743  -0.0100638  -0.590875
1.7137  0.0512913  -0.44065
2.04302  -0.0268385  -2.35436
0.768113  0.0254357  -2.92343
1.4528  0.104715  -0.914807
0.753726  0.204447  -2.90608
1.53617  0.276809  -0.794296
2.11204  0.359609  -2.58674
1.66889  0.320671  -0.540959
1.37345  0.334124  -1.11331
1.77261  0.357946  -0.365344
1.63885  0.366944  -0.584543
1.72065  0.366402  -0.467848
1.63866  0.394147  -0.59598
1.60791  0.403261  -0.671636
1.53889  0.426902  -0.799605
1.5897  0.450494  -0.687174
1.77719  0.510098  -0.370188
1.76659  0.521332  -0.388248
1.79484  0.594509  -0.443879
-0.0510494  0.0682591  -0.62575
0.668139  0.118703  -0.706533
1.38099  0.0531042  -2.28305
1.60196  0.117108  -0.65376
1.63547  0.117684  -0.57453
0.740342  0.128004  -2.89037
0.740342  0.128004  -2.89037
1.66505  0.154274  -0.527878
1.35211  0.155201  -1.10626
1.65088  0.179718  -0.594284
1.63692  0.18609  -0.559952
1.61757  0.193386  -0.610046
1.69261  0.195645  -2.14083
1.58518  0.215595  -2.23969
1.37391  0.22341  -1.072
1.68806  0.227045  -0.532884
1.62001  0.227264  -0.608655
1.42441  0.232443  -0.964692
1.63687  0.230797  -0.588173
0.529033  0.240454  -2.67771
1.70582  0.252817  -0.51379
1.65463  0.287112  -0.554962
1.61374  0.291302  -0.65239
1.55062  0.294877  -0.746011
1.52279  0.325259  -0.786891
1.55767  0.326962  -0.720247
0.420038  0.361487  -2.6226
1.7889  0.341962  -0.321301
1.84099  0.355466  -0.249427
0.504123  0.406734  -2.65272
1.83669  0.365641  -0.267082
0.489969  0.414936  -2.64547
1.86725  0.398179  -0.260673
1.59291  0.439367  -0.681008
1.5869  0.451058  -0.695074
1.58704  0.451312  -0.695172
1.80092  0.460005  -0.348074
1.57099  0.472153  -0.70268
1.80001  0.467041  -0.318946
1.77889  0.479465  -0.362453
1.67795  0.488749  -0.495546
1.75938  0.487691  -0.390714
1.63672  0.522396  -1.0318
1.60765  0.502745  -0.651291
1.60683  0.506186  -0.650597
1.58739  0.512182  -0.721537
1.74284  0.511134  -0.422121
1.79463  0.537218  -0.359513
1.8348  0.597732  -0.364364
1.69028  0.685569  -0.589158
1.41349  0.000356232  -1.00053
1.35452  0.00517279  -1.1076
1.33149  0.00320459  -1.21112
1.37949  0.0633845  -1.08713
1.3339  0.080021  -2.29527
0.69641  0.0809062  -2.8507
1.64614  0.121722  -0.567637
1.64862  0.122134  -0.569309
1.69964  0.123  -0.512567
1.65268  0.144671  -0.581207
1.58851  0.223749  -0.633076
1.42161  0.256699  -0.985975
1.42889  0.267123  -2.22423
1.34621  0.268011  -2.58374
1.49109  0.2901  -0.855237
1.39432  0.29511  -1.05353
1.39351  0.295269  -1.05292
1.57413  0.303793  -0.701909
1.71866  0.356012  -3.158
1.77804  0.309823  -0.350132
0.374019  0.34115  -2.60877
1.83419  0.312432  -0.234674
0.409243  0.359484  -2.60893
1.45817  0.346092  -0.919913
1.53693  0.343383  -0.793081
0.529605  0.39265  -2.68028
2.05808  0.445971  -2.96634
1.64948  0.363238  -0.567242
1.76228  0.378434  -0.384611
2.27126  0.498622  -2.85132
1.46686  0.422765  -0.935045
1.46554  0.430248  -0.945209
1.86701  0.412148  -0.271355
1.58042  0.424167  -0.710869
1.69543  0.4419  -0.518789
1.59792  0.451251  -0.677653
1.51379  0.459958  -0.884716
1.51379  0.459958  -0.884716
1.50587  0.477793  -0.910316
1.60643  0.484112  -0.627891
1.65281  0.486152  -0.577523
1.69275  0.487026  -0.481297
1.73536  0.485911  -0.422273
1.64516  0.507432  -0.591373
1.62717  0.512615  -0.633689
1.67797  0.511983  -0.534702
1.65889  0.514498  -0.558434
1.66415  0.515372  -0.562142
1.66748  0.515881  -0.567496
1.74926  0.512568  -0.436493
1.63923  0.522762  -0.603676
1.68305  0.520106  -0.534914
1.77425  0.52426  -0.370674
1.77651  0.532931  -0.38295
1.61959  0.105332  -4.04912
-0.120383  0.134247  -0.673504
-0.0957801  0.079653  -0.650466
-0.115608  0.127794  -0.667128
1.47809  0.231563  -2.24613
1.42396  0.312483  -2.23807
1.52285  0.230098  -2.25539
1.54429  0.232247  -2.26573
-0.168635  0.0568542  -0.681444
-0.167544  0.0577163  -0.681287
-1.25189  0.0249027  -2.34557
-0.0567319  0.607229  -3.64217
-2.47353  0.612623  -1.09618
-2.18294  0.522565  -1.33172
-2.24628  0.527372  -1.28107
-2.31062  0.530304  -1.23004
-2.18044  0.601074  -1.33331
-2.6069  0.617461  -0.974524
-2.20989  0.562621  -1.30618
-2.44408  0.671489  -1.11015
-2.49782  0.672949  -1.06169
-2.02691  0.867082  -2.49587
-2.06232  0.613243  -2.44386
-1.13323  0.0824269  -2.32892
-2.03525  0.711935  -2.45029
-2.35548  0.617361  -1.1884
-2.48073  0.641191  -1.07518
-2.56102  0.644317  -1.00406
-1.66611  0.66944  -2.41734
-2.62558  0.647634  -0.955336
-2.47538  0.661864  -1.0758
-2.13145  0.399604  -1.32639
-2.18428  0.401124  -1.28273
-1.92581  0.511245  -2.42271
-2.56644  0.652636  -0.996302
-2.03178  0.869473  -2.50442
-2.07031  0.450881  -1.3668
-1.48586  0.56564  -2.38705
-2.09932  0.640969  -2.44384
-2.08545  0.641786  -2.44703
-2.00557  0.640251  -2.43991
-2.50997  0.630008  -1.04937
-2.64761  0.640632  -0.938134
-2.56219  0.674424  -1.00206
-2.56222  0.674286  -1.00187
-1.26784  0.899225  -2.43132
-1.26732  0.912064  -2.43258
-1.94988  0.392055  -1.48795
-2.1657  0.455131  -1.29372
-2.19372  0.621339  -1.32798
-2.50294  0.624721  -1.05524
-2.55053  0.631104  -1.0152
-1.96134  0.925772  -2.70715
-0.900962  0.0697184  -2.41758
-0.874491  0.164165  -2.46274
-1.01838  0.207367  -2.3649
-1.97164  0.453262  -1.45772
-2.11137  0.459894  -1.33697
-2.245  0.464895  -1.21724
-2.03572  0.478282  -1.45488
-1.95159  0.592289  -2.42455
-1.94713  0.623454  -2.43206
-2.00587  0.661066  -2.44377
-1.34691  0.0139501  -2.34948
-1.28178  0.0477462  -2.08595
-1.17938  0.164003  -2.32658
-1.27571  0.202842  -2.38199
-0.949057  0.204742  -2.40007
-0.67336  0.403997  -4.64357
-1.10071  0.410696  -2.33927
-1.94265  0.624032  -2.43497
-1.46624  0.649276  -2.38901
-1.37746  0.657765  -2.38911
-1.4426  0.671973  -2.38802
-1.69869  0.816167  -2.86879
-1.17475  0.795751  -2.41223
-1.35017  0.740177  -2.4019
-1.29464  0.810903  -2.41557
-1.29464  0.810903  -2.41557
-0.201551  0.488064  -3.6746
-1.18524  0.150083  -2.32118
-1.1894  0.12256  -2.33133
1.29484  0.175208  -2.34316
-0.12515  0.622739  -3.67844
-0.310951  0.331881  -3.81791
-1.68902  0.65564  -2.41227
-0.672886  0.705944  -2.9058
-1.24275  0.65273  -2.37027
1.67233  0.359926  -2.82593
1.41769  0.297233  -1.01947
1.35683  0.157515  -1.18979
1.33512  0.23289  -1.18468
1.34162  0.213923  -1.23172
1.35182  0.297207  -1.135
1.38389  0.369007  -1.30585
1.36758  0.356476  -1.30941
-0.174224  0.235892  -0.69107
1.41682  0.087648  -0.974665
1.85455  0.105768  -3.4357
1.35206  0.196025  -1.29226
1.40273  0.275391  -1.02915
1.35929  0.29252  -1.29084
1.39865  0.287781  -1.02776
1.39077  0.056944  -1.02138
1.37847  0.135547  -1.31196
1.36504  0.139019  -1.31224
1.3939  0.152027  -1.0391
1.35212  0.177792  -1.19029
1.38179  0.217287  -1.06798
1.39694  0.222525  -1.04057
1.39993  0.302722  -1.03895
1.35803  0.305952  -1.16418
1.35255  0.362661  -1.23972
1.38485  0.428757  -1.26092
0.00155584  0.0131222  -0.439797
1.38493  0.0772964  -1.07905
1.41681  0.101974  -1.00327
1.39722  0.150885  -1.05189
2.1069  0.188026  -3.81625
1.27896  0.201022  -2.35172
1.34934  0.195344  -1.23037
1.52235  0.247523  -2.88388
1.40357  0.217069  -0.996292
1.40123  0.217176  -1.02209
1.39384  0.217115  -1.01883
1.3599  0.228048  -1.10372
1.38659  0.229196  -1.04676
3.36112  0.374626  -2.52142
3.36112  0.374626  -2.52142
1.42116  0.264309  -1.00276
1.35676  0.299293  -1.17128
1.39756  0.304345  -1.05153
1.34422  0.307797  -1.14327
1.35456  0.337604  -1.15347
1.36014  0.347743  -1.16153
-0.165617  0.0837921  -0.690747
1.40461  0.0863298  -0.982103
1.34115  0.124848  -1.19454
1.40389  0.129412  -1.02313
1.40465  0.130654  -1.3393
1.29149  0.131198  -2.37127
1.34087  0.18754  -2.58787
1.41475  0.187068  -0.972508
1.40123  0.215585  -1.04301
1.39559  0.215272  -1.04043
1.37043  0.215606  -1.07443
1.35164  0.253062  -1.22449
1.41595  0.277181  -1.02651
1.40721  0.333384  -1.03721
1.40564  0.336312  -1.07628
1.39297  0.340779  -1.06588
4.46839  0.645913  -3.42064
1.36056  0.371577  -1.14312
1.42286  0.0393156  -0.909409
2.47808  0.0281347  -2.07086
1.34776  0.0652449  -1.1591
1.32572  0.125537  -1.175
2.5114  0.148078  -2.10008
1.35357  0.146917  -1.15636
1.36635  0.147028  -1.10075
1.3636  0.147024  -1.09952
1.34364  0.147202  -1.15749
1.40416  0.17006  -1.29769
2.47226  0.199893  -2.09082
2.46448  0.205229  -2.08914
1.45088  0.21804  -2.21958
1.48897  0.245228  -2.83516
1.38385  0.220627  -1.05369
1.3982  0.221667  -1.01461
1.39138  0.231939  -1.03107
1.36134  0.232688  -1.09137
1.35737  0.236438  -1.12097
1.35105  0.252797  -1.22419
1.35094  0.280147  -1.21265
1.35458  0.288932  -1.16071
1.35073  0.296553  -1.2042
1.34848  0.337356  -1.20885
1.35244  0.340138  -1.21493
1.4184  0.351032  -1.30635
1.40532  0.342431  -1.03244
4.4706  0.654374  -3.41304
1.38397  0.358697  -1.06087
2.14175  0.496237  -2.88103
-0.144482  0.284479  -0.63185
1.27071  -0.0123249  -1.33938
1.28267  -0.0112384  -1.30953
1.36911  0.0264408  -1.0865
1.39434  0.0357807  -1.02903
1.35836  0.0386748  -1.10153
1.35836  0.0386748  -1.10153
1.38332  0.0607029  -1.06178
1.33952  0.0656375  -1.16574
1.41295  0.100431  -0.967253
1.39283  0.101968  -1.0413
1.29389  0.136435  -2.37523
1.4042  0.144881  -0.983679
1.34979  0.149419  -1.21752
1.37285  0.154949  -1.12229
1.3829  0.162195  -1.06133
1.34474  0.167999  -1.20646
1.35334  0.169274  -1.12376
1.37309  0.17319  -1.09058
1.46914  0.238567  -2.80236
1.36601  0.217574  -1.07202
1.37412  0.21882  -1.0453
1.37873  0.221999  -1.05761
1.38939  0.221723  -1.0248
1.36529  0.222581  -1.07161
1.35897  0.224604  -1.1033
1.40228  0.224049  -0.991722
1.37787  0.231298  -1.0625
1.42121  0.229745  -0.961093
1.2876  0.257526  -2.38931
1.39103  0.236313  -1.03121
1.39098  0.236337  -1.0311
1.41366  0.237357  -0.967631
1.3557  0.254595  -1.14813
1.42031  0.253663  -0.987216
1.41303  0.254982  -1.00002
1.71346  0.353324  -2.94268
1.35157  0.292387  -1.15611
1.37344  0.301188  -1.3024
1.40064  0.300562  -1.0268
1.3541  0.313135  -1.14672
1.45735  0.335694  -1.33056
1.41568  0.318626  -0.973488
1.2373  0.321127  -1.18958
1.35719  0.334668  -1.28426
1.3452  0.334701  -1.26607
1.34334  0.334372  -1.27074
1.35171  0.33828  -1.24067
1.35704  0.339482  -1.25021
1.35183  0.346008  -1.23779
1.40812  0.346708  -1.03814
1.42409  0.358026  -0.973136
1.43159  0.376853  -1.03836
2.07157  0.519976  -2.98636
1.43316  0.388357  -1.06578
1.41787  0.395128  -1.07881
1.4464  0.0156101  -0.909039
1.37776  0.031891  -1.06057
1.42627  0.0376484  -0.933149
1.38192  0.0603191  -1.05278
1.3824  0.0663245  -1.079
1.42494  0.0672462  -1.02739
1.33676  0.077419  -1.19959
1.39069  0.0900822  -1.03404
1.40929  0.089719  -1.04321
1.36234  0.0905575  -1.10403
1.39162  0.0990179  -1.04135
1.34498  0.126498  -1.16566
1.40943  0.132542  -0.980618
1.34709  0.144092  -1.15792
1.37813  0.146053  -1.06491
1.34973  0.146847  -1.15131
1.37852  0.179164  -1.09153
1.28503  0.194149  -2.34437
1.35558  0.204789  -1.12887
1.29663  0.219575  -2.39455
1.3735  0.218296  -1.07237
1.36345  0.221556  -1.09571
1.40857  0.220789  -0.992135
1.3756  0.223333  -1.05097
1.38963  0.222972  -1.01499
1.37752  0.224375  -1.05996
1.35811  0.232303  -1.1284
1.37918  0.233537  -1.05531
1.34726  0.236999  -1.14125
1.33882  0.236512  -1.14192
1.41214  0.234492  -0.97574
1.37858  0.235996  -1.05715
1.37222  0.235932  -1.0599
1.37016  0.237664  -1.05587
1.39355  0.238817  -1.06714
1.38311  0.245886  -1.06966
1.38518  0.251814  -1.04921
1.36292  0.298403  -1.29961
1.3529  0.297491  -1.17422
1.34862  0.337788  -1.25827
1.39484  0.332027  -1.05956
1.43334  0.329033  -0.955051
1.3719  0.339249  -1.11552
1.39664  0.340128  -1.06061
1.35243  0.353898  -1.1418
1.42454  0.350283  -0.973783
1.35927  0.354358  -1.12405
1.35033  0.356117  -1.14109
1.41529  0.361846  -1.09799
1.39407  0.397262  -1.1781
1.39789  0.43042  -1.28217
-0.158154  0.270592  -0.698265
1.44594  0.0178047  -0.909756
1.36341  0.0280596  -1.09151
1.36444  0.031275  -1.08989
1.36905  0.0315821  -1.08319
1.40288  0.0351558  -1.01008
1.40236  0.0797919  -1.04989
1.38957  0.0837616  -1.04325
1.30784  0.0774803  -2.31129
1.4158  0.101303  -1.00626
1.39736  0.140557  -1.04602
1.35142  0.142226  -1.15891
1.26787  0.173754  -0.923799
1.28913  0.19039  -2.46997
2.35187  0.227099  -2.26047
1.3802  0.19157  -1.08603
1.36476  0.197981  -1.10716
1.35422  0.201138  -1.14731
1.40103  0.219281  -0.991441
1.40197  0.221399  -0.991696
1.37553  0.223693  -1.06126
1.3937  0.225905  -1.00761
1.37193  0.238639  -1.07029
1.39865  0.239771  -1.01047
1.40978  0.239822  -0.984921
1.40978  0.239822  -0.984921
1.39052  0.250987  -1.05385
1.40859  0.257231  -1.02104
1.71958  0.361873  -2.94024
1.41594  0.334187  -1.32426
1.41083  0.332361  -1.28193
1.3885  0.343354  -1.30675
1.35916  0.34737  -1.2808
1.39942  0.340033  -1.04058
1.80735  0.455589  -3.24838
1.42853  0.341678  -0.987761
1.36672  0.352899  -1.12142
1.39475  0.352948  -1.0608
1.39569  0.354191  -1.05861
1.40598  0.382183  -1.30262
1.40402  0.376022  -1.0946
1.35427  0.379903  -1.1305
1.44301  0.38071  -1.0137
1.40293  0.41829  -1.25725
1.45981  0.431588  -1.17302
1.45539  -0.00266131  -0.93284
1.41992  0.0310375  -0.973408
1.38132  0.0339738  -1.05224
2.11025  0.00628006  -2.77889
2.61093  0.082834  -4.59227
1.38228  0.142791  -1.0511
2.54802  0.165444  -4.48253
1.42628  0.156601  -1.00441
1.35648  0.173721  -1.11681
1.39431  0.176564  -1.02908
1.35112  0.250284  -1.17152
1.41901  0.285517  -1.00638
1.55021  0.357137  -2.70163
1.35953  0.306029  -1.23153
1.3489  0.349583  -1.18962
1.36763  0.351349  -1.18277
1.39202  0.350407  -1.09228
1.38899  0.432049  -1.27497
1.39207  0.432386  -1.27675
1.48043  0.463289  -0.951158
1.48398  0.465024  -0.944862
1.6288  0.326866  -0.61008
1.62456  0.32658  -0.608663
-0.751605  -0.091872  -3.75488
-0.751605  -0.091872  -3.75488
1.78455  0.431192  -0.350563
1.77128  0.0611835  -0.344092
1.46496  0.224909  -0.895165
1.75891  0.5017  -0.377516
-0.567806  0.613469  -3.73286
1.83797  0.34084  -0.282686
1.64157  0.355635  -0.579035
1.61295  0.247669  -0.629883
1.75821  0.308265  -0.377798
1.69637  0.406815  -0.556181
1.4  0.345384  -1.05086
-0.560694  0.43989  -3.69305
-0.544014  0.500068  -3.67807
1.67289  0.00516883  -0.5087
1.72265  0.409293  -0.463833
1.6899  -0.0094896  -0.517633
0.696113  -0.0419854  -2.82285
1.73327  0.135046  -0.403137
1.77728  0.199943  -0.29695
-0.674175  0.155691  -3.71216
1.79234  0.281952  -0.309448
1.75576  0.315762  -0.380194
1.83787  0.333368  -0.243666
-0.557441  0.447837  -3.6437
-0.366125  0.673518  -3.89619
-0.53478  0.818232  -3.68657
1.41918  -0.00897088  -0.952557
1.42297  0.00437037  -0.947804
1.41643  0.00315504  -0.971884
-0.806719  0.00336075  -3.79492
1.68599  0.132208  -0.492943
1.75816  0.136717  -0.361644
1.30941  0.0911971  -2.32745
2.52949  0.104923  -2.50045
0.467407  0.159524  -2.65249
1.3425  0.217582  -1.19595
1.34715  0.296249  -1.20963
-0.551699  0.323889  -3.63938
1.83294  0.355343  -0.272226
-0.729451  0.471196  -3.79074
-0.732841  0.490351  -3.78608
-0.732841  0.490351  -3.78608
-0.678742  0.74962  -3.80464
-0.549809  0.798519  -3.74711
-0.791603  1.0227  -3.86127
1.67261  -0.00371483  -0.529844
1.67009  -0.00356747  -0.528767
1.4215  -0.0189765  -0.947962
1.6114  -0.037903  -1.20117
1.67917  0.0018249  -0.535314
1.56095  -0.0278374  -1.11055
1.42347  0.0113795  -0.953906
-0.747976  0.00549254  -3.73239
2.5593  0.114103  -2.55467
1.58187  0.192929  -0.673968
1.35945  0.243548  -0.0921629
-0.575648  0.212014  -3.62336
1.81878  0.250426  -0.282422
1.82892  0.256403  -0.268844
1.77156  0.305364  -0.360126
1.39095  0.304859  -1.05859
-0.739752  0.341441  -3.77541
-0.546755  0.371818  -3.63741
-0.63448  0.488903  -3.69563
-0.694865  0.497462  -3.72632
-0.737809  0.504653  -3.78985
1.74044  0.458166  -0.420824
1.74084  0.553828  -0.420015
1.81284  0.558291  -0.356145
1.7879  0.593999  -0.440564
-0.568311  0.763905  -3.67878
-0.652124  0.820926  -3.77674
-0.784394  0.935303  -3.87928
1.419  -0.0274057  -0.954683
1.67418  -0.0077227  -0.524676
1.67418  -0.0077227  -0.524676
1.67188  -0.00827973  -0.532026
1.41517  -0.0191994  -0.958799
1.41903  0.0293863  -0.966955
1.36358  0.036289  -1.11182
2.66964  -0.0165943  -2.47475
-0.688944  0.0707553  -3.68324
1.31383  0.101515  -2.31505
1.59146  0.18855  -0.650536
1.67462  0.200929  -2.14398
1.68432  0.222525  -0.514502
1.70037  0.228448  -0.539262
-0.628783  0.196098  -3.65249
0.829252  0.201979  -2.99103
-0.574875  0.204232  -3.64489
1.82699  0.247581  -0.273253
1.81096  0.287338  -0.282453
1.66483  0.320528  -0.560461
-0.636819  0.341149  -3.68885
-0.630802  0.343939  -3.63902
3.23797  0.456046  -3.53288
-0.48516  0.39202  -3.80971
-0.450915  0.400398  -3.74115
0.390324  0.398006  -2.62874
1.86125  0.388035  -0.244639
1.07814  0.385984  -0.929024
1.59089  0.410575  -0.684878
1.59496  0.444398  -0.678248
-0.354289  0.526199  -4.22415
1.6742  0.504397  -0.533517
1.7698  0.505554  -0.410401
1.66388  0.519513  -0.538687
1.76941  0.53295  -0.417767
1.99847  0.578978  -0.692502
1.78191  0.544399  -0.350518
1.87478  0.564282  -0.350789
4.75259  1.11756  -3.5585
-0.653941  0.763436  -3.75674
-0.656339  0.782521  -3.81924
-0.838774  0.812912  -3.88684
1.67413  -0.0114872  -0.52891
2.65031  -0.0101163  -2.44074
1.67692  0.118031  -0.534782
2.63427  0.0561653  -2.46451
2.56966  0.191529  -2.5735
2.76989  0.238959  -2.83487
0.851269  0.25919  -2.93045
1.35305  0.295121  -1.17034
1.46537  0.323075  -0.889388
1.40119  0.332132  -1.041
1.7547  0.373628  -0.395114
1.76712  0.381753  -0.385882
1.48667  0.405086  -0.879891
1.88063  0.404703  -0.24257
1.8722  0.410496  -0.238181
1.5663  0.416487  -0.718647
1.84798  0.41597  -0.306128
1.66241  0.479634  -0.55086
1.60491  0.481063  -0.631862
1.69699  0.505608  -0.50607
1.77772  0.533622  -0.393435
1.89393  0.560948  -0.351022
1.7551  0.556871  -0.417905
-1.50291  0.205616  -2.37079
-1.44206  0.217909  -2.36323
-0.555383  0.496583  -4.33795
-2.46307  0.705681  -2.68358
-1.57429  0.229117  -2.36931
-1.57447  0.228387  -2.37013
-0.720766  0.478952  -4.59219
-0.302722  0.544119  -3.80477
-0.531118  0.75802  -4.79211
-1.55145  0.7082  -2.48499
-1.55145  0.7082  -2.48499
-0.697444  0.651913  -2.59191
-0.516441  -0.0441872  -0.502983
-0.516441  -0.0441872  -0.502983
-1.13441  0.0996144  -2.32508
-1.12972  0.0995881  -2.3281
-1.09308  0.104816  -2.34383
-0.61837  0.658755  -4.5781
-0.542875  0.742361  -4.79132
-0.195486  0.686357  -3.76266
-1.43893  0.73533  -2.41438
-0.527271  0.506175  -4.29314
-1.11792  0.103102  -2.32938
1.79158  0.0798563  -0.319981
1.41901  -0.00388249  -0.981757
1.80401  0.361506  -0.298547
1.90081  0.346552  -0.136956
1.90124  0.34747  -0.13633
1.84053  0.215982  -0.229018
1.74393  0.548249  -0.476766
1.50937  0.285581  -0.818688
1.94037  0.465761  -0.236371
-0.282402  0.0249086  0.199096
1.35995  0.0384489  -1.11013
1.79285  0.190347  -0.290353
1.82682  0.208491  -0.284821
1.59956  0.281243  -0.652266
2.1612  0.45559  -2.91648
0.511952  -0.0206464  -2.65912
1.47326  0.0498334  -0.868814
1.45641  0.0921594  -0.915525
1.76809  0.136414  -0.343456
1.51583  0.193286  -0.829064
1.76644  0.196825  -0.365551
1.34717  0.323126  -1.19528
1.34717  0.323126  -1.19528
1.65539  0.321718  -0.554407
0.340804  0.451118  -2.62524
0.340804  0.451118  -2.62524
1.72233  0.453356  -0.473426
-0.00284043  -0.00770232  0.0645988
1.59699  0.128264  -0.172225
1.59116  0.199625  -0.649189
1.65176  0.215961  -0.555936
1.69946  0.217372  -0.469362
1.78938  0.30702  -0.330724
1.88675  0.355922  -0.158558
1.8009  0.446781  -0.33014
1.95509  0.470495  -0.206813
1.54476  -0.0355339  -1.21984
0.464034  -0.0687049  -2.63612
1.32123  0.0322255  -1.22341
1.42363  0.0409064  -0.946914
1.74547  0.0717236  -0.385411
1.66585  0.0996733  -0.531332
1.64877  0.119641  -0.554152
1.64851  0.131639  -0.553098
1.37184  0.222018  -1.06995
1.77289  0.369491  -0.360862
0.37602  0.416827  -2.60517
1.68205  0.404177  -0.539053
4.49727  0.829194  -3.4111
5.16651  3.95476  -8.14075
1.54143  0.0443612  -0.71294
0.881706  0.228961  -3.06508
0.213914  0.340583  -2.67392
1.78277  0.324788  -0.319051
1.61437  0.355545  -0.6288
3.04041  0.550865  -3.25312
1.77826  0.408507  -0.369559
1.78666  0.4539  -0.382242
1.60436  0.480688  -0.637627
-0.166911  0.699301  -3.83871
-0.904218  0.556996  -2.4465
-0.806481  0.46996  -4.91363
-0.146716  0.707066  -3.86022
0.300526  0.415017  -2.65494
0.389197  0.419188  -2.64331
0.514394  0.299209  -2.62147
-0.976814  0.666886  -2.40368
-0.144576  0.691074  -3.82548
-0.626102  0.684816  -4.69342
-0.377742  0.493339  -3.98302
-0.0687992  0.675644  -3.81588
-0.0630663  0.178811  1.08743
1.52098  0.296376  -0.798403
1.52047  0.296148  -0.797853
1.61545  0.361732  -0.638142
1.49578  0.285512  -0.847295
1.3557  0.296926  -1.13979
1.21024  0.255675  -3.51926
1.66675  0.427618  -0.570444
1.47751  0.118688  -0.489027
1.589  0.0414181  -0.651031
1.3505  0.240447  -1.10684
1.51208  0.346296  -0.834063
1.51208  0.346296  -0.834063
1.65748  0.361263  -0.564099
1.67602  -0.00397997  -0.51683
1.65713  0.000491828  -0.532337
1.47383  0.047899  -0.49161
2.03299  0.101915  -0.88236
1.63907  0.192322  -0.584384
1.64938  0.215662  -0.55455
-0.0904812  0.241434  -0.672473
1.65933  0.295792  -0.5575
-0.293519  0.590883  -3.8034
0.20341  0.577153  -3.07797
1.57166  0.465794  -0.796378
0.42554  -0.303807  -0.821097
0.42554  -0.303807  -0.821097
-0.25731  0.0618579  -0.16715
1.64323  -0.00982424  -0.585124
1.66861  -0.00415273  -0.527682
1.64379  -0.00483164  -0.581939
1.6382  -0.00432392  -0.579535
1.66884  0.00202807  -0.530401
1.64504  0.00168694  -0.577737
1.63634  0.0025709  -0.581009
1.63744  0.00262676  -0.581918
1.37491  0.0348472  -1.06608
1.63639  0.0898153  -0.585774
1.6576  0.201561  -0.547651
1.64133  0.216641  -0.587007
1.58231  0.219338  -0.68169
1.31122  0.207997  -0.318013
0.0647342  0.50364  -3.00436
1.51264  0.35864  -0.830347
0.136622  0.544406  -3.01192
1.60391  0.392416  -0.655684
1.68093  0.397387  -0.573915
1.66714  0.423555  -0.577386
1.62988  0.00124111  -0.589633
1.60812  0.00760725  -0.636137
1.67002  0.0931684  -0.528413
1.60998  0.120283  -0.626152
1.65734  0.122199  -0.544207
1.35857  0.212037  -1.11593
1.5156  0.283871  -0.810683
1.60254  0.29157  -0.638451
1.79861  0.348295  -0.934959
1.51963  0.382434  -0.814923
1.43923  0.374915  -0.794229
-0.304548  0.133505  0.870234
1.56973  0.480051  -0.692338
1.61761  0.478609  -0.617883
1.61005  0.48134  -0.623062
1.6425  0.491343  -0.577826
1.66143  0.492377  -0.538854
1.6325  0.503154  -0.607968
0.415047  -0.314981  -0.824275
0.415047  -0.314981  -0.824275
1.64648  -0.0107974  -0.566457
1.63333  -0.0079405  -0.583456
1.37224  -0.0140889  -1.05871
1.66325  0.00265933  -0.521271
1.52785  0.110733  -0.775941
1.67081  0.109795  -0.851766
1.63667  0.116822  -0.586526
1.58794  0.118879  -0.644852
1.42051  0.132706  -0.979986
1.51657  0.138362  -0.547336
1.36831  0.144523  -1.09228
1.33966  0.184954  -0.364528
1.58711  0.226443  -0.664759
1.57888  0.226627  -0.679379
1.67313  0.228947  -0.525687
1.6835  0.229514  -0.510657
1.55375  0.28194  -0.743632
1.57662  0.325524  -0.703173
-0.0618024  0.518953  -3.53384
-0.0543096  0.529706  -3.51314
1.51539  0.358275  -0.824161
1.59699  0.365672  -0.667211
1.41935  0.38094  -0.728691
-0.298525  0.131224  0.87742
-0.0550188  0.687526  -3.83883
1.84911  0.457502  -0.715632
1.59554  0.440839  -0.678896
1.58335  0.471907  -0.685083
1.61522  0.476145  -0.636669
1.63651  0.485068  -0.580317
1.65783  0.488521  -0.538535
1.60509  0.506992  -0.656289
1.63919  0.506408  -0.602527
1.50134  0.269107  -0.832546
-0.134115  0.0864525  -0.742741
2.02272  0.158633  -3.63327
-0.117968  0.0998156  -0.770624
-0.106656  0.312146  -0.718759
1.52447  0.385894  -0.780296
1.5165  0.354854  -0.778961
1.76694  0.519666  -1.03751
1.39479  0.4106  -1.23155
1.35999  0.323938  -1.16793
1.55822  0.464832  -0.805262
1.4097  0.0709483  -0.979106
1.38708  0.218212  -0.984353
1.41992  0.378781  -1.13964
1.41594  0.0822031  -1.01362
1.42044  0.301812  -2.34716
1.45586  0.300814  -2.34493
1.66379  0.394584  -2.72962
1.36235  0.341091  -1.2558
1.44797  0.423241  -1.17911
1.60559  0.553375  -0.692774
1.62068  0.554691  -0.696932
0.66596  0.244369  -2.82416
-0.0916937  0.292461  -0.776702
1.44973  0.428414  -0.963378
1.47141  0.453619  -0.97275
1.60014  0.465581  -0.77322
1.38409  0.0353487  -2.45558
1.02079  0.155617  -0.511853
1.49492  0.297944  -2.74814
0.621855  0.283036  -2.78138
1.37708  0.279684  -1.2994
0.546771  0.345873  -2.72315
1.35093  0.38299  -1.13488
1.44343  0.407302  -1.16232
1.72974  0.533506  -0.775142
1.72974  0.533506  -0.775142
1.34126  0.185284  -2.51649
1.34126  0.185284  -2.51649
1.36162  0.360242  -1.26265
1.78128  0.438737  -1.1318
1.43688  0.405801  -0.965008
1.51916  0.427745  -0.812449
1.72903  0.552447  -0.784638
0.570679  -0.0834994  -2.76267
0.00685901  0.0137506  -0.426219
0.946325  -0.00627454  -1.88382
1.37651  0.152926  -1.02903
1.3611  0.350275  -1.27313
1.4397  0.412949  -0.961353
-0.0849649  1.04581  -0.814237
1.46581  0.19321  -2.74812
1.32502  0.227748  -2.33417
1.64097  0.232697  -0.66444
9.58255  0.839757  -3.59942
1.47477  0.324119  -0.863465
1.36924  0.380876  -1.24814
1.78938  0.434014  -1.12807
1.4751  0.460789  -0.975287
-0.0490784  1.07661  -0.660296
1.40884  -0.0284542  -2.59085
1.38719  -0.00507713  -1.06237
1.36365  0.174182  -2.54493
1.39204  0.170758  -1.06066
1.46807  0.248439  -2.73529
1.40639  0.222914  -1.01341
1.44408  0.342515  -1.22975
2.67422  0.425834  -1.52175
1.36662  0.34277  -1.18243
1.55876  0.355029  -1.18287
1.38282  0.342596  -1.10093
1.37132  0.353227  -1.12969
0.538025  0.381976  -2.70333
1.39607  0.359599  -1.03114
1.40633  0.386637  -1.07886
0.527616  -0.081298  -2.72896
1.39755  -0.0323263  -2.58766
1.33702  0.023184  -2.43212
1.49818  0.0404535  -0.777665
1.25181  0.0914044  -0.875983
1.55748  0.203891  -2.87923
1.48091  0.27216  -2.72277
1.51697  0.303033  -2.79977
1.62462  0.306825  -2.2859
0.499022  0.293052  -2.67619
1.36401  0.300112  -1.15291
-0.0769734  0.231579  -0.833446
1.21322  0.309608  -0.980473
1.35418  0.338635  -1.21243
1.34543  0.337724  -1.20858
0.640726  0.373686  -2.79707
3.1456  0.545846  -3.381
2.03772  0.523555  -3
1.48471  0.483357  -0.959542
1.3161  -0.0276746  -2.36478
1.28881  -0.021575  -2.34179
1.34171  0.168095  -1.20642
1.41027  0.223824  -0.993825
1.31588  0.287228  -2.35452
1.4233  0.261048  -0.972259
-0.0771073  0.233604  -0.83496
1.49681  0.371258  -2.50786
1.4748  0.338603  -1.3269
3.15409  0.515328  -3.42122
1.82713  0.455831  -3.26825
1.4006  0.406119  -1.27418
1.58639  0.411638  -0.688357
1.48098  0.468454  -0.978678
1.51254  0.467174  -0.906097
1.93729  0.536668  -0.87807
0.19878  0.421426  -2.6807
1.57269  0.210526  -2.22049
-0.182092  0.602329  -3.78967
1.38587  0.133164  -2.27683
1.61183  0.245102  -2.2571
0.167111  0.441663  -2.75745
1.70947  0.264451  -2.19623
0.194731  0.452877  -2.72691
1.56621  0.201184  -2.25586
1.612  0.218053  -2.24447
1.60893  0.15182  -2.24018
1.64513  0.186395  -2.20433
-0.10814  0.451294  -3.40292
0.181953  0.454578  -2.73348
1.55149  0.195068  -2.2572
1.69261  0.226375  -2.17282
1.67701  0.228175  -2.18672
1.69238  0.235921  -2.17284
1.62912  0.269089  -2.26464
1.6537  0.272626  -2.25397
-0.0681124  0.515976  -3.57126
-0.0681124  0.515976  -3.57126
-0.0678487  0.27468  -0.741165
1.32337  0.171943  -2.40705
1.54413  0.399561  -1.10874
-0.154599  0.0893052  -0.681216
1.41789  0.272436  -1.01595
-0.0528277  0.283434  -0.645215
1.72438  0.516193  -0.445349
1.34959  0.253545  -1.13203
1.58236  0.448599  -0.784311
1.7758  0.110607  -0.318198
1.33473  0.276466  -2.36199
1.79839  0.331565  -0.326548
-0.0711411  0.258009  -0.847718
1.7707  0.0529697  -0.30121
-0.159818  0.0833685  -0.699061
1.44551  0.189821  -0.474192
1.60588  0.490288  -0.823844
1.77594  0.0733599  -0.322284
1.71393  0.198597  -0.438586
1.59195  0.195466  -0.664156
1.33605  0.23581  -1.15378
1.12252  0.242167  -0.332398
1.40789  0.366849  -1.0697
1.4002  0.368346  -1.17086
1.72163  0.523884  -0.782649
1.76019  0.559296  -0.462592
1.5966  0.11092  -0.62138
-0.136669  0.106015  -0.670132
1.73994  0.134043  -0.385335
1.79375  0.198799  -0.301497
1.29037  0.188055  -2.35849
1.70484  0.216979  -0.491172
3.08456  0.257303  -2.3584
1.37053  0.227607  -0.998026
1.39706  0.262569  -1.02076
1.72716  0.287036  -0.458984
1.48573  0.353728  -0.888938
-0.152502  0.231425  -0.672885
1.44357  0.407877  -0.954129
1.43245  0.420392  -1.15962
1.78225  0.46269  -0.35773
1.83145  0.572877  -0.343596
1.83426  0.586114  -0.35838
0.854168  -0.103161  -0.293799
1.73729  -0.0395593  -0.301164
1.78408  0.157944  -0.326946
-0.132217  0.145651  -0.670159
1.73811  0.236319  -0.44398
1.77864  0.299308  -0.367526
1.67252  0.296187  -0.532622
1.41089  0.421754  -1.28156
1.8111  0.444377  -0.334795
1.80232  0.447898  -0.32868
1.59124  0.493317  -0.619013
1.68471  0.111745  -0.478479
1.39587  0.0758608  -2.57412
0.917202  0.128374  -0.728811
1.70479  0.20168  -0.452212
1.26464  0.193367  -2.39622
1.37066  0.197804  -2.4696
1.35495  0.216909  -1.05625
1.40365  0.223632  -0.980102
1.38116  0.24162  -1.0329
3.25876  0.380433  -2.48307
1.70312  0.291829  -0.484558
1.34466  0.280954  -1.20135
1.71828  0.317611  -0.461164
1.31637  0.330001  -1.06537
1.40197  0.362555  -1.11468
1.71578  0.396463  -0.455034
2.23121  0.504828  -2.91121
1.68103  0.427444  -0.537946
1.74377  0.496229  -0.42633
1.52385  0.0457492  -0.545611
1.76711  0.0657918  -0.319994
1.70626  0.0929096  -0.441436
1.68675  0.115717  -0.489651
1.69446  0.116126  -0.482048
1.35365  0.257558  -1.05186
1.34104  0.287571  -2.29593
1.38292  0.292976  -1.06401
1.39059  0.301064  -1.10345
1.785  0.329629  -0.374096
1.40068  0.318403  -1.00869
1.3936  0.333537  -1.11069
1.35449  0.343855  -1.27096
1.35463  0.34824  -1.14421
3.81457  0.604096  -1.13292
1.72292  0.414772  -0.441285
1.63036  0.504994  -0.624347
-0.101316  0.310459  -0.750802
1.71158  0.52876  -0.462961
1.51644  0.0149644  -0.740287
1.7693  0.11156  -0.362533
1.38959  0.125966  -1.37216
1.37065  0.143573  -2.53458
1.35802  0.17256  -1.05753
1.56514  0.193006  -0.698434
1.57285  0.193314  -0.699805
1.36749  0.19095  -1.1008
1.56487  0.226766  -0.697683
1.35726  0.222027  -1.07007
1.37245  0.278091  -1.15836
1.34515  0.285529  -2.24358
1.59856  0.317366  -0.657634
1.52537  0.322688  -0.785235
1.54203  0.32586  -0.770491
1.78816  0.351239  -0.321915
1.4404  0.377063  -1.0159
1.57522  0.38897  -0.700595
1.58504  0.40877  -0.691458
3.03683  0.564835  -0.940533
1.59119  0.439189  -0.679574
1.33271  -0.00108102  -2.41161
1.50476  0.0579222  -0.799911
1.31621  0.026461  -2.30819
1.36238  0.145287  -1.09413
1.76946  0.19341  -0.318551
1.35351  0.208459  -1.12201
1.37591  0.233429  -1.06377
1.39906  0.236912  -1.06734
1.36927  0.235335  -1.06336
1.43082  0.245975  -0.963692
1.3389  0.262036  -2.28814
1.33647  0.279263  -2.54718
1.807  0.365376  -1.28443
1.43134  0.375602  -1.02499
1.99297  0.465056  -2.96346
1.63345  0.449316  -0.645121
1.77609  0.500271  -0.361477
1.70785  0.523756  -0.473857
-1.7783  0.226227  -0.113289
-1.7783  0.226227  -0.113289
1.36219  0.257215  -2.57839
1.36219  0.257215  -2.57839
-0.0661405  1.12001  -0.74518
1.53543  0.332104  -0.786079
1.57872  0.35197  -2.63757
1.37469  0.299735  -2.30634
1.31387  0.29878  -2.36047
1.81631  0.387734  -2.97241
1.6254  0.473976  -0.581954
1.42581  0.259653  -2.74354
1.39102  0.284898  -2.67961
1.39102  0.284898  -2.67961
1.34228  0.288994  -2.55448
1.29833  0.289928  -2.48896
1.29833  0.289928  -2.48896
1.6458  0.400607  -0.592403
1.78215  0.539808  -3.16245
-1.77123  0.266814  -0.140623
1.635  0.210234  -0.648625
1.94585  0.423441  -3.01983
1.84137  0.540302  -3.24685
1.67597  0.221953  -0.501932
2.55755  0.218434  -2.38314
2.97717  0.333745  -2.38618
1.68819  0.44874  -0.521667
-0.0545093  1.02367  -0.793538
-0.0530502  1.14637  -0.730636
1.32666  0.100146  -2.34619
1.32855  0.262677  -2.31996
1.73955  0.32335  -0.38295
1.5347  0.465166  -0.875943
1.54099  0.465698  -0.877158
1.37381  0.00222577  -2.26602
1.37775  0.0226714  -2.26879
1.37797  0.059517  -2.26954
1.38359  0.132487  -2.27404
1.32688  0.144562  -2.31781
1.72215  0.241355  -0.471714
1.28725  0.199381  -2.44365
1.45739  0.326294  -2.59287
1.45739  0.326294  -2.59287
1.64232  0.358378  -0.639925
1.88173  0.394724  -3.04955
1.8798  0.394821  -3.04806
2.39327  0.463136  -4.01503
1.81542  0.522027  -3.09177
-0.069784  0.99756  -0.78408
1.77988  0.0420839  -1.72682
1.30515  0.0997618  -2.40042
1.4814  0.224458  -2.82376
1.33205  0.271739  -2.60266
0.91909  0.304169  -0.47412
1.72059  0.413389  -0.453605
1.72642  0.453394  -0.549557
1.78529  0.508919  -3.03995
1.57251  0.551009  -0.671549
-0.0700955  1.03553  -0.813123
-0.032174  1.0685  -0.672316
1.38991  -0.0110817  -2.2284
-0.233541  0.143677  -0.289662
2.80152  0.21101  -2.20513
1.67284  0.246846  -0.532799
1.60583  0.215757  -2.2435
1.31316  0.218468  -2.47174
1.48505  0.232218  -2.82784
1.49  0.245846  -2.8378
1.8423  0.350292  -3.35575
1.57484  0.371908  -2.70587
2.45859  0.454029  -3.96878
2.45794  0.459047  -3.97552
1.7831  0.483905  -3.21016
1.95077  0.518547  -3.03408
1.96184  0.51973  -2.98987
1.96005  0.540231  -3.01442
1.82291  0.538134  -3.08938
1.78362  0.549393  -0.444056
4.41816  1.0435  -3.37545
1.81856  0.64244  -0.414159
4.13088  -0.328908  -4.88535
1.34489  0.0256681  -2.31171
1.13809  0.131946  -1.46416
1.31027  0.136946  -2.38858
1.41763  0.173091  -2.2496
1.30097  0.195709  -2.34187
1.78091  0.232994  -1.77854
1.41709  0.237543  -2.25046
1.41788  0.245646  -2.25106
1.41681  0.256812  -2.27105
1.67611  0.426483  -0.487027
2.01304  0.48368  -2.93489
1.64908  0.451705  -0.57523
1.88442  0.510354  -3.33526
1.83559  0.511286  -3.09298
1.78421  0.543344  -3.14771
1.81733  0.654573  -0.410397
1.36491  0.016602  -2.34172
1.37687  0.178154  -2.59982
1.31714  0.23296  -2.31338
1.39039  0.0835843  -2.2642
1.36649  0.205315  -2.56817
1.38796  0.0991826  -2.67805
1.39408  0.162822  -2.2623
4.46228  0.628688  -3.33692
1.37917  0.405302  -1.26624
1.3538  0.121137  -1.27385
1.35189  0.138048  -1.11957
1.41779  0.261649  -1.01696
1.41179  0.28898  -1.03251
1.33756  0.305712  -1.23769
1.31489  0.282289  -2.33526
1.29785  0.280851  -2.35223
1.34937  0.331307  -1.24584
1.35221  0.333334  -1.19021
1.40348  0.340233  -1.20834
1.34393  0.0555237  -1.16453
4.3583  0.5416  -3.24622
1.34153  0.241145  -1.27255
1.32001  0.2877  -2.33626
0.79493  0.248479  -0.937433
1.76102  0.384312  -1.1292
2.05556  0.517813  -2.96834
2.00679  0.568049  -3.03675
1.31569  0.0290571  -2.3253
1.31607  0.134663  -2.31375
1.39756  0.196826  -2.69435
1.37359  0.22211  -1.07985
1.32725  0.29394  -2.34062
1.32569  0.294703  -2.34732
1.34118  0.302635  -2.31834
1.3351  0.304921  -2.32204
1.35675  0.340064  -1.16176
1.40169  0.174273  -1.03017
1.35491  0.208876  -1.11705
1.38596  0.219835  -1.04696
1.38596  0.219835  -1.04696
1.39598  0.22559  -1.0302
1.36265  0.224455  -1.10107
1.40033  0.23407  -1.00901
1.35499  0.230111  -1.11372
1.37821  0.235857  -1.05717
1.34271  0.293697  -2.31911
1.34271  0.293697  -2.31911
1.88545  0.443782  -3.06615
1.99633  0.470482  -2.99414
1.43422  0.377514  -1.03841
1.43401  0.387035  -1.00768
2.51923  0.0176689  -2.39631
2.52055  0.232108  -2.54118
2.49843  0.25941  -2.46579
2.49843  0.25941  -2.46579
1.40005  0.22172  -1.01637
1.39186  0.220588  -1.02965
1.37254  0.220074  -1.07046
1.37761  0.220737  -1.06976
1.38005  0.224318  -1.06089
1.89054  0.444315  -3.06274
1.35318  0.3377  -1.17784
1.93122  0.467599  -3.02809
1.40078  0.354399  -1.04532
1.38283  0.377417  -1.18277
-1.47293  0.352106  -2.37899
-1.49102  0.253546  -2.36034
-1.47574  0.381359  -2.38511
-1.47219  0.0333265  -2.33868
-1.04571  0.415221  -2.36697
-1.38806  0.22637  -2.36144
-1.29238  0.429719  -2.35736
-0.147149  0.0756797  -0.621135
-1.31131  0.111095  -2.34256
-1.30187  0.129903  -2.32967
-1.30755  0.138762  -2.34257
-1.02499  0.298386  -2.36241
-1.32238  0.10217  -2.34707
-1.32423  0.106592  -2.34765
-1.58012  0.204217  -2.37283
-1.44812  0.536295  -2.34024
-1.11346  0.0294915  -2.30487
-1.19716  0.116223  -2.33464
-1.50218  0.214178  -2.3517
-0.766946  0.211044  -0.856214
-1.28747  0.326198  -2.34917
-1.05405  0.558181  -2.37332
-1.13789  0.24512  -2.3333
-1.14063  0.244954  -2.33977
-0.806917  0.309733  -0.98105
-0.939784  0.480962  -2.41712
1.86392  0.411195  -0.261138
1.70049  0.128426  -0.474791
2.06203  0.466108  -0.248094
1.80459  0.617802  -0.406453
1.8878  0.401602  -0.227705
1.96475  0.455177  -0.296007
1.89133  0.323208  -0.174743
1.85232  0.345907  -0.236898
1.87524  0.348551  -0.198702
1.81105  0.360001  -0.301119
1.87201  0.365365  -0.171955
2.15416  0.191354  -0.269269
1.87355  0.21845  -0.164698
1.89563  0.266044  -0.14902
1.86978  0.282768  -0.17921
1.91223  0.424359  -0.17771
1.75108  0.594049  -0.421778
1.87519  0.269898  -0.169962
1.852  0.274547  -0.209772
1.88823  0.281562  -0.13682
1.89687  0.372985  -0.155064
1.51555  0.454281  -0.893619
1.95779  0.48029  -0.220869
1.65619  0.539751  -0.401464
1.68493  0.187981  -0.484969
1.85286  0.209143  -0.219191
1.86434  0.244602  -0.187208
1.68222  0.331283  -2.37102
1.87262  0.333939  -0.181253
1.88047  0.424865  -0.225063
1.17223  0.0649944  -3.60553
2.14366  0.100729  -0.259264
1.41505  0.101201  -2.17683
1.67657  0.128875  -0.542837
1.35857  0.239892  -1.12243
1.83942  0.263288  -0.226439
1.90371  0.322033  -0.161721
1.86456  0.32309  -0.178038
1.82276  0.329322  -0.285617
1.86161  0.349208  -0.224214
1.89833  0.358753  -0.14918
1.8721  0.362513  -0.19068
1.54034  0.370349  -0.783317
2.02308  0.440304  -0.188679
2.02219  0.478432  -0.244769
1.95591  0.480175  -0.22543
1.83515  0.553593  -0.337489
1.73932  0.546582  -0.334624
1.70934  0.549718  -0.324555
1.70589  0.560657  -0.422497
1.58064  -0.0311265  -1.25287
1.66403  -0.00167448  -0.553857
1.68512  0.13137  -0.491667
1.70794  0.242619  -0.478379
1.83211  0.251743  -0.249391
3.28993  0.394063  -3.60506
1.86715  0.27773  -0.193079
1.8516  0.282907  -0.21791
1.84904  0.282911  -0.217518
1.77306  0.305879  -0.367041
1.87797  0.319361  -0.216037
1.55426  0.322118  -0.722462
1.54545  0.322044  -0.741243
1.87012  0.37431  -0.233435
1.88383  0.389518  -0.21414
1.95017  0.463839  -0.207222
1.60191  0.464411  -0.737549
1.6987  0.45728  -0.406387
1.75214  0.465218  -0.311453
1.66189  0.555405  -0.428481
1.80734  0.596324  -0.467061
1.64807  0.0023675  -0.577186
2.67678  0.00414233  -2.49265
1.35115  0.0926391  -1.20017
2.16175  0.144553  -0.763921
1.64022  0.153701  -0.134172
1.44354  0.205651  -2.20384
1.37046  0.215067  -1.07253
1.58008  0.219168  -0.69597
1.58509  0.219303  -0.668791
1.6335  0.220528  -0.584223
1.67515  0.222523  -0.494055
1.34811  0.241834  -1.22743
1.86737  0.251549  -0.197391
1.35678  0.287332  -1.20106
1.65381  0.279701  -0.561657
3.28683  0.44226  -3.50712
1.71696  0.296559  -0.454208
1.89942  0.300327  -0.20942
1.77625  0.305286  -0.322484
1.8652  0.317911  -0.213433
1.8319  0.321021  -0.249128
1.42092  0.335719  -1.11217
1.38514  0.330656  -1.00198
2.42165  0.427495  -1.66707
1.77649  0.398302  -0.335012
1.67391  0.539239  -0.400277
1.74814  0.548682  -0.399657
1.7859  0.5875  -0.464647
1.38022  -0.00615045  -1.09114
2.69698  0.004307  -2.49111
1.62408  0.0889235  -0.62342
1.61134  0.119779  -0.62703
1.3505  0.125709  -1.17018
1.36134  0.171264  -1.29736
2.68172  0.208746  -2.50803
3.25698  0.232292  -3.39455
3.25698  0.232292  -3.39455
1.92696  0.205135  -0.209395
3.34799  0.360004  -3.58479
3.25649  0.401519  -3.56094
3.25503  0.409092  -3.54109
3.25343  0.40854  -3.55023
3.36879  0.436592  -3.55111
1.79528  0.280747  -0.298736
1.87247  0.292743  -0.180558
1.88346  0.299546  -0.195856
1.89296  0.321041  -0.165038
1.82497  0.321105  -0.296624
1.40192  0.341987  -1.03665
1.63518  0.338345  -0.549919
1.89366  0.357833  -0.218921
1.88378  0.358386  -0.201675
1.88305  0.358119  -0.174212
1.79043  0.359093  -0.334514
1.84867  0.366638  -0.22992
1.86564  0.371153  -0.200845
2.12528  0.465084  -1.50968
1.9953  0.393029  -0.196186
1.90373  0.388709  -0.247766
1.90373  0.388709  -0.247766
1.90946  0.38601  -0.120564
1.89766  0.390995  -0.205792
1.88383  0.395939  -0.212106
1.881  0.399445  -0.245581
1.91854  0.401732  -0.178993
1.91854  0.401732  -0.178993
1.89174  0.401567  -0.216683
1.68155  0.404584  -0.513151
1.78105  0.407184  -0.375134
1.78105  0.407184  -0.375134
-0.0587751  0.326242  -0.777105
1.95586  0.464699  -0.223494
2.00967  0.479308  -0.221924
2.02295  0.482979  -0.20494
1.69027  0.483923  -0.489884
1.60172  0.525435  -0.656196
1.65911  0.523769  -0.394452
1.64006  0.526226  -0.42892
1.75421  0.541661  -0.380923
1.38951  -0.000765987  -1.02566
1.63063  0.00172224  -0.580954
1.63441  0.043092  -0.573735
1.33844  0.0642714  -1.19397
1.37589  0.0667114  -1.07395
2.04294  0.108787  -0.876352
1.39369  0.137233  -1.04366
1.69968  0.139092  -0.507195
1.71869  0.146002  -0.44451
1.52329  0.187061  -2.21241
1.37702  0.173048  -1.082
1.3256  0.192954  -2.27787
1.35533  0.220032  -1.09888
1.35777  0.237484  -1.11795
1.39173  0.254568  -1.07059
3.29043  0.38156  -3.49179
1.79431  0.285906  -0.290049
1.82327  0.28712  -0.24634
1.80659  0.290466  -0.333623
1.36675  0.317583  -1.13693
1.85  0.315288  -0.230644
1.92013  0.319494  -0.19401
1.89017  0.32045  -0.225118
1.38946  0.327988  -1.04965
3.74751  0.481436  -1.03101
1.92709  0.35683  -0.26474
1.89627  0.369452  -0.168757
1.77424  0.378833  -0.302497
1.91295  0.385689  -0.180961
1.91117  0.391529  -0.183927
1.90026  0.390896  -0.200281
1.87759  0.394528  -0.246659
1.90724  0.397868  -0.251623
1.91674  0.398235  -0.176454
1.90922  0.405723  -0.194027
1.94904  0.410946  -0.229973
1.9013  0.406983  -0.240803
1.91065  0.408807  -0.246864
1.97913  0.414509  -0.199717
1.91645  0.411505  -0.199469
1.73025  0.432657  -0.479456
1.63  0.434333  -0.626469
1.7966  0.435705  -0.327516
1.91932  0.462636  -0.271448
1.78631  0.462599  -0.349638
1.95717  0.474367  -0.232357
1.55889  0.466019  -0.564108
1.64802  0.485962  -0.567057
1.71627  0.491117  -0.459027
1.71085  0.490889  -0.461098
1.64422  0.48864  -0.523192
1.71303  0.496231  -0.458168
1.62276  0.501552  -0.600853
1.79045  0.545116  -0.361652
1.70599  0.537524  -0.358665
1.70599  0.537524  -0.358665
0.268195  0.428564  -2.66745
-0.228111  -0.0219904  -0.31203
-0.230594  -0.019052  -0.313929
-0.368823  0.015344  -0.644188
-0.203815  0.0365638  -0.531653
-0.173708  0.0379993  -0.51001
0.249259  0.325339  -2.65717
-0.231906  -0.0192491  -0.314779
-0.357818  -0.0201201  -0.407072
-0.366992  -0.00110218  -0.638452
-0.355813  -0.0167509  -0.405884
-0.221581  0.0283672  -0.542535
-0.227455  -0.024444  -0.31152
-0.130912  -0.0443398  -0.440005
-0.225103  -0.0194789  -0.309765
-0.232412  -0.0164966  -0.315844
-0.38626  -0.0211467  -0.422278
-0.206269  0.036022  -0.533034
0.338321  0.346079  -2.61969
0.0329662  0.365635  -2.58002
0.196858  0.461069  -2.72767
-0.227658  -0.0253734  -0.311651
-0.227658  -0.0253734  -0.311651
-0.233257  -0.0197308  -0.315816
-0.230871  -0.0179464  -0.314166
-0.385506  -0.0174579  -0.422857
-0.210272  0.0294074  -0.534782
0.246372  0.415189  -2.66547
0.224863  0.55916  -3.14917
-0.353725  -0.0361561  -0.480927
-0.379301  -0.0191016  -0.419053
-0.181688  0.0286616  -0.515081
-0.233045  -0.0242108  -0.316162
-0.225083  -0.0182408  -0.309654
-0.227419  -0.0151478  -0.312024
-0.226583  -0.0133372  -0.311769
-0.359028  -0.0212294  -0.407516
-0.358791  -0.0191935  -0.407504
-0.358791  -0.0191935  -0.407504
-0.385799  -0.0205392  -0.422401
-0.380814  -0.0176537  -0.419983
-0.209149  0.0270611  -0.533151
-0.209149  0.0270611  -0.533151
-0.182382  0.0281978  -0.51549
0.26358  0.575781  -3.16648
0.288492  0.574217  -2.98923
0.282516  0.575213  -2.99269
0.285687  0.580034  -2.99338
-0.377709  -0.0185092  -0.418603
-0.377709  -0.0185092  -0.418603
-0.357608  -0.0163244  -0.406987
-0.380903  -0.0124346  -0.421277
-0.381917  -0.0124636  -0.42168
-0.17496  0.0214703  -0.509471
-0.177263  0.0267614  -0.511533
-0.169963  0.0311251  -0.506431
-0.177292  0.035839  -0.512351
-0.177292  0.035839  -0.512351
0.244918  0.458831  -2.67572
-0.380188  -0.0123817  -0.42081
-0.210033  0.0347601  -0.535629
-0.170699  0.0355028  -0.507537
-0.160829  0.0361591  -0.500174
-0.171292  0.0360068  -0.50811
-0.156953  0.0379389  -0.496646
-0.161851  0.0401513  -0.501066
1.57253  0.257843  -2.10653
0.242372  0.381865  -2.66718
0.302292  0.543311  -2.87686
1.36018  0.343567  -1.2221
-0.216738  0.0338038  -0.542938
-0.218395  0.0383546  -0.545207
-0.218395  0.0383546  -0.545207
-0.173695  0.0359703  -0.50854
-0.173695  0.0359703  -0.50854
-0.161639  0.0370456  -0.500596
-0.222213  0.0283715  -0.544996
1.36318  0.156311  -1.11554
1.39024  0.289805  -1.2892
1.35585  0.288142  -1.19059
1.38606  0.389762  -1.14175
1.39118  0.242645  -1.01215
0.57928  0.385717  -2.73963
1.3705  0.373455  -1.14897
1.39178  0.42832  -1.25423
-0.212004  0.0266739  -0.534447
1.36494  0.127742  -1.08625
1.6098  0.234164  -2.21905
1.37994  0.299013  -1.06647
1.37776  0.328057  -1.31796
1.41351  0.34476  -1.02685
1.38327  0.361591  -1.27239
1.38645  0.377418  -1.30931
1.38533  0.380609  -1.31445
1.37572  0.376626  -1.25803
1.35019  0.314856  -1.15206
1.34584  0.317178  -1.15116
1.36638  0.316652  -1.08979
1.41823  0.330601  -1.0151
1.35589  0.339068  -1.22111
1.37169  0.346162  -1.28573
1.35692  0.341291  -1.18567
1.35692  0.341291  -1.18567
1.40435  0.385975  -1.07133
1.40136  0.390164  -1.11952
1.45993  0.433014  -1.18789
0.411705  0.598632  -3.00957
0.332445  0.0888065  -2.61551
-0.17791  0.0363421  -0.51274
1.38149  0.168739  -1.05272
1.34769  0.197518  -1.15626
1.38327  0.218968  -1.04959
1.37363  0.21925  -1.05264
1.39173  0.224912  -1.06702
1.34653  0.230765  -1.14281
1.37361  0.236018  -1.06498
1.36407  0.234998  -1.07144
1.35256  0.236706  -1.10529
1.38396  0.259257  -1.08198
1.33864  0.309797  -1.22405
1.35407  0.311382  -1.14866
1.37378  0.326348  -1.2867
1.36314  0.330684  -1.25756
1.35434  0.338764  -1.26198
1.35828  0.33951  -1.25795
1.35353  0.348081  -1.21703
1.35616  0.34851  -1.21856
1.39411  0.347766  -1.10249
1.36773  0.21943  -1.06821
1.3631  0.237105  -1.06832
1.35461  0.328768  -1.24076
1.36526  0.329753  -1.17335
1.41805  0.332277  -1.01994
1.3574  0.345485  -1.22543
1.45984  0.381806  -1.37508
1.39129  0.353229  -1.04749
1.39696  0.379526  -1.2961
1.39088  0.393278  -1.18538
-1.26292  0.834378  -2.44834
-0.0648782  0.330927  -0.68288
-0.0757848  0.328846  -0.68077
-0.10776  0.290291  -0.668862
-0.108861  0.31077  -0.680243
-0.101237  0.309781  -0.673627
-1.42414  0.741882  -2.41865
-0.122485  0.305521  -0.696769
-0.10137  0.30973  -0.673515
-1.31016  0.734655  -2.39613
-1.50943  0.582103  -2.39573
-1.13908  0.64354  -2.23728
-1.72655  0.298538  -0.965714
-1.87122  0.308605  -0.86645
-1.94489  0.588783  -2.43684
-1.56209  0.35831  -2.38831
